14.099271 -9.657257 0.126754 17
15.782425 -10.810129 1.077873 19
14.107116 -9.698846 0.126869 17
15.763538 -10.837661 1.077752 19
14.057246 -9.700734 0.126465 17
15.678866 -10.819796 1.073133 19
14.040295 -9.725255 0.126357 17
15.651756 -10.841462 1.072450 19
14.056143 -9.772578 0.126545 17
15.600027 -10.845969 1.070081 19
14.047263 -9.802817 0.126511 17
15.515577 -10.827474 1.065463 18
14.030134 -9.827322 0.126327 17
15.472133 -10.837360 1.063573 18
14.012961 -9.851795 0.126219 17
15.404194 -10.829898 1.060082 18
13.963066 -9.853174 0.125816 17
15.360801 -10.839499 1.058277 18
13.994810 -9.912210 0.126150 17
15.325569 -10.854756 1.057035 18
13.985639 -9.942413 0.126115 17
15.241506 -10.835211 1.052421 18
13.911287 -9.926152 0.125494 17
15.190069 -10.838603 1.050056 18
13.942719 -9.985351 0.125826 17
15.154898 -10.853477 1.048815 18
13.998348 -10.062200 0.126378 17
15.095404 -10.850777 1.045889 18
13.956437 -10.069063 0.126049 17
15.019768 -10.836217 1.041840 18
13.979341 -10.122732 0.126307 17
14.976578 -10.844853 1.040039 18
13.880762 -10.088326 0.125466 17
14.941480 -10.859239 1.038799 18
13.879290 -10.124325 0.125505 17
14.841846 -10.826466 1.033068 18
13.853531 -10.142626 0.125323 17
14.814877 -10.846458 1.032391 18
13.924450 -10.231924 0.126017 17
14.739611 -10.830918 1.028346 18
13.874378 -10.232470 0.125617 17
14.688548 -10.832928 1.025985 18
13.904722 -10.292365 0.125945 17
14.677650 -10.864491 1.026432 18
13.886739 -10.316619 0.125836 17
14.570510 -10.824600 1.020145 18
13.844664 -10.322909 0.125509 17
14.575612 -10.867922 1.021713 18
13.826627 -10.347056 0.125400 17
14.484685 -10.839510 1.016550 18
13.872512 -10.419215 0.125872 17
14.433815 -10.840794 1.014191 18
13.822366 -10.419336 0.125473 17
14.390959 -10.847942 1.012395 18
13.859982 -10.485677 0.125870 17
14.316271 -10.830879 1.008356 17
13.881482 -10.540089 0.126123 17
14.249641 -10.819628 1.004878 17
13.902834 -10.594604 0.126374 17
14.222800 -10.838433 1.004204 17
13.868435 -10.606704 0.126120 17
14.156282 -10.826851 1.000728 17
13.857835 -10.636981 0.126081 17
14.097768 -10.821150 0.997813 17
13.870937 -10.685564 0.126260 17
14.063046 -10.833557 0.996580 17
13.915557 -10.758687 0.126726 17
14.044124 -10.858088 0.996468 17
13.912559 -10.795218 0.126759 17
14.056707 -10.907069 0.998598 17
13.909475 -10.831773 0.126792 17
13.990390 -10.894784 0.995123 17
13.882671 -10.849876 0.126609 17
13.939892 -10.894596 0.992771 17
13.863715 -10.874090 0.126498 17
13.889437 -10.894266 0.990419 17
13.789713 -10.854974 0.125885 17
13.831180 -10.887616 0.987507 17
13.833520 -10.928616 0.126348 17
13.780825 -10.886985 0.985156 17
13.830096 -10.965170 0.126379 17
13.714865 -10.873808 0.981685 17
13.787465 -10.970613 0.126054 17
13.672432 -10.879081 0.979895 17
13.752667 -10.982182 0.125799 17
13.591011 -10.853091 0.975305 17
0.000000 0.000000 0.000000 0
13.548679 -10.858067 0.973517 17
0.000000 0.000000 0.000000 0
13.483033 -10.844156 0.970048 17
0.000000 0.000000 0.000000 0
13.417476 -10.830051 0.966581 17
0.000000 0.000000 0.000000 0
13.390800 -10.847171 0.965913 17
0.000000 0.000000 0.000000 0
13.333115 -10.839038 0.963006 17
10.475630 -8.546482 0.096125 13
13.283237 -10.837050 0.960660 17
0.000000 0.000000 0.000000 0
13.217956 -10.822270 0.957196 17
10.229403 -8.405242 0.093968 13
13.145053 -10.800959 0.953172 17
0.000000 0.000000 0.000000 0
13.087670 -10.792127 0.950268 16
0.000000 0.000000 0.000000 0
13.068818 -10.814956 0.950162 16
10.100634 -8.388413 0.092939 13
13.003840 -10.799480 0.946699 16
0.000000 0.000000 0.000000 0
12.992648 -10.828556 0.947152 16
9.986917 -8.353048 0.091996 13
13.035002 -10.902465 0.951518 17
9.903390 -8.312607 0.091222 12
13.061846 -10.963719 0.954689 17
9.896515 -8.336322 0.091211 12
13.019786 -10.967206 0.952905 17
9.889588 -8.360038 0.091199 12
12.855756 -10.867449 0.942180 16
9.821605 -8.332004 0.090625 12
12.737794 -10.805906 0.934810 16
9.753749 -8.303758 0.090052 12
12.665703 -10.782820 0.930794 16
9.693624 -8.281796 0.089550 12
12.631685 -10.791942 0.929572 16
9.572874 -8.207579 0.088487 12
12.574936 -10.781482 0.926674 16
9.505474 -8.178619 0.087917 12
12.556104 -10.803418 0.926570 16
9.559305 -8.254014 0.088468 12
12.484336 -10.779643 0.922556 16
9.484426 -8.218300 0.087829 12
12.457959 -10.794880 0.921894 16
9.454977 -8.221717 0.087610 12
12.408967 -10.790404 0.919556 16
9.598836 -8.376279 0.088998 12
12.367551 -10.792356 0.917778 16
9.478882 -8.300788 0.087940 12
0.000000 0.000000 0.000000 0
9.419312 -8.277713 0.087443 12
10.012348 -8.798875 0.745108 13
9.359850 -8.254456 0.086945 12
0.000000 0.000000 0.000000 0
9.390361 -8.310542 0.087284 12
0.000000 0.000000 0.000000 0
9.338457 -8.293718 0.086858 12
0.000000 0.000000 0.000000 0
9.316504 -8.303351 0.086710 12
0.000000 0.000000 0.000000 0
9.376533 -8.386262 0.087325 12
0.000000 0.000000 0.000000 0
9.265139 -8.315784 0.086344 12
12.015074 -10.783947 0.901891 16
9.183739 -8.271711 0.085642 12
11.996238 -10.804905 0.901790 16
9.161870 -8.281023 0.085495 12
11.940330 -10.792355 0.898899 16
9.139997 -8.290283 0.085348 12
11.891897 -10.786350 0.896568 16
9.132909 -8.312954 0.085339 12
11.850906 -10.786929 0.894794 16
9.088853 -8.301905 0.084985 12
11.802578 -10.780665 0.892463 16
9.052235 -8.297485 0.084701 12
0.000000 0.000000 0.000000 0
9.037740 -8.313272 0.084623 12
9.736709 -8.956211 0.738443 13
9.037913 -8.342598 0.084684 12
9.721066 -8.973194 0.738359 13
9.030675 -8.365156 0.084675 12
9.712717 -8.996935 0.738833 13
9.045359 -8.408138 0.084872 12
9.682378 -9.000280 0.737635 13
9.030671 -8.423913 0.084794 12
11.601451 -10.821965 0.885174 15
9.059756 -8.480665 0.085128 12
11.560679 -10.821732 0.883403 15
9.059519 -8.510157 0.085187 12
11.490839 -10.794044 0.879405 15
9.095588 -8.573970 0.085588 12
11.457456 -10.800388 0.878192 15
9.022493 -8.534857 0.084962 12
11.409578 -10.792928 0.875865 15
9.014836 -8.557476 0.084952 12
11.361762 -10.785333 0.873539 15
9.043330 -8.614580 0.085283 12
11.299547 -10.763831 0.870100 15
8.970454 -8.575073 0.084659 12
11.273531 -10.776639 0.869445 15
0.000000 0.000000 0.000000 0
11.233093 -10.775566 0.867677 15
0.000000 0.000000 0.000000 0
0.000000 0.000000 0.000000 0
0.000000 0.000000 0.000000 0
0.000000 0.000000 0.000000 0
0.000000 0.000000 0.000000 0
0.000000 0.000000 0.000000 0
0.000000 0.000000 0.000000 0
11.186235 -10.881590 0.869510 15
0.000000 0.000000 0.000000 0
11.088639 -10.824381 0.863293 15
0.000000 0.000000 0.000000 0
11.019805 -10.794813 0.859302 15
0.000000 0.000000 0.000000 0
10.993832 -10.807034 0.858649 15
0.000000 0.000000 0.000000 0
10.960740 -10.812185 0.857440 15
0.000000 0.000000 0.000000 0
10.970241 -10.859399 0.859566 15
0.000000 0.000000 0.000000 0
10.930024 -10.857424 0.857801 15
0.000000 0.000000 0.000000 0
10.918132 -10.883536 0.858260 15
0.000000 0.000000 0.000000 0
0.000000 0.000000 0.000000 0
0.000000 0.000000 0.000000 0
0.000000 0.000000 0.000000 0
0.000000 0.000000 0.000000 0
0.000000 0.000000 0.000000 0
0.000000 0.000000 0.000000 0
0.000000 0.000000 0.000000 0
0.000000 0.000000 0.000000 0
0.000000 0.000000 0.000000 0
0.000000 0.000000 0.000000 0
0.000000 0.000000 0.000000 0
0.000000 0.000000 0.000000 0
0.000000 0.000000 0.000000 0
0.000000 0.000000 0.000000 0
0.000000 0.000000 0.000000 0
0.000000 0.000000 0.000000 0
0.000000 0.000000 0.000000 0
0.000000 0.000000 0.000000 0
0.000000 0.000000 0.000000 0
0.000000 0.000000 0.000000 0
0.000000 0.000000 0.000000 0
0.000000 0.000000 0.000000 0
0.000000 0.000000 0.000000 0
0.000000 0.000000 0.000000 0
0.000000 0.000000 0.000000 0
0.000000 0.000000 0.000000 0
0.000000 0.000000 0.000000 0
0.000000 0.000000 0.000000 0
0.000000 0.000000 0.000000 0
0.000000 0.000000 0.000000 0
0.000000 0.000000 0.000000 0
0.000000 0.000000 0.000000 0
0.000000 0.000000 0.000000 0
0.000000 0.000000 0.000000 0
0.000000 0.000000 0.000000 0
0.000000 0.000000 0.000000 0
0.000000 0.000000 0.000000 0
0.000000 0.000000 0.000000 0
0.000000 0.000000 0.000000 0
0.000000 0.000000 0.000000 0
0.000000 0.000000 0.000000 0
0.000000 0.000000 0.000000 0
0.000000 0.000000 0.000000 0
0.000000 0.000000 0.000000 0
0.000000 0.000000 0.000000 0
0.000000 0.000000 0.000000 0
0.000000 0.000000 0.000000 0
0.000000 0.000000 0.000000 0
0.000000 0.000000 0.000000 0
0.000000 0.000000 0.000000 0
0.000000 0.000000 0.000000 0
0.000000 0.000000 0.000000 0
0.000000 0.000000 0.000000 0
0.000000 0.000000 0.000000 0
0.000000 0.000000 0.000000 0
0.000000 0.000000 0.000000 0
0.000000 0.000000 0.000000 0
0.000000 0.000000 0.000000 0
0.000000 0.000000 0.000000 0
0.000000 0.000000 0.000000 0
0.000000 0.000000 0.000000 0
0.000000 0.000000 0.000000 0
0.000000 0.000000 0.000000 0
0.000000 0.000000 0.000000 0
0.000000 0.000000 0.000000 0
0.000000 0.000000 0.000000 0
0.000000 0.000000 0.000000 0
0.000000 0.000000 0.000000 0
0.000000 0.000000 0.000000 0
0.000000 0.000000 0.000000 0
0.000000 0.000000 0.000000 0
0.000000 0.000000 0.000000 0
0.000000 0.000000 0.000000 0
0.000000 0.000000 0.000000 0
0.000000 0.000000 0.000000 0
0.000000 0.000000 0.000000 0
0.000000 0.000000 0.000000 0
0.000000 0.000000 0.000000 0
0.000000 0.000000 0.000000 0
0.000000 0.000000 0.000000 0
0.000000 0.000000 0.000000 0
0.000000 0.000000 0.000000 0
0.000000 0.000000 0.000000 0
0.000000 0.000000 0.000000 0
0.000000 0.000000 0.000000 0
0.000000 0.000000 0.000000 0
0.000000 0.000000 0.000000 0
0.000000 0.000000 0.000000 0
0.000000 0.000000 0.000000 0
0.000000 0.000000 0.000000 0
0.000000 0.000000 0.000000 0
0.000000 0.000000 0.000000 0
0.000000 0.000000 0.000000 0
0.000000 0.000000 0.000000 0
0.000000 0.000000 0.000000 0
0.000000 0.000000 0.000000 0
0.000000 0.000000 0.000000 0
0.000000 0.000000 0.000000 0
0.000000 0.000000 0.000000 0
0.000000 0.000000 0.000000 0
0.000000 0.000000 0.000000 0
0.000000 0.000000 0.000000 0
0.000000 0.000000 0.000000 0
0.000000 0.000000 0.000000 0
0.000000 0.000000 0.000000 0
0.000000 0.000000 0.000000 0
0.000000 0.000000 0.000000 0
0.000000 0.000000 0.000000 0
0.000000 0.000000 0.000000 0
0.000000 0.000000 0.000000 0
0.000000 0.000000 0.000000 0
0.000000 0.000000 0.000000 0
0.000000 0.000000 0.000000 0
0.000000 0.000000 0.000000 0
0.000000 0.000000 0.000000 0
0.000000 0.000000 0.000000 0
0.000000 0.000000 0.000000 0
0.000000 0.000000 0.000000 0
0.000000 0.000000 0.000000 0
0.000000 0.000000 0.000000 0
0.000000 0.000000 0.000000 0
0.000000 0.000000 0.000000 0
0.000000 0.000000 0.000000 0
0.000000 0.000000 0.000000 0
0.000000 0.000000 0.000000 0
0.000000 0.000000 0.000000 0
0.000000 0.000000 0.000000 0
0.000000 0.000000 0.000000 0
0.000000 0.000000 0.000000 0
0.000000 0.000000 0.000000 0
0.000000 0.000000 0.000000 0
0.000000 0.000000 0.000000 0
0.000000 0.000000 0.000000 0
0.000000 0.000000 0.000000 0
0.000000 0.000000 0.000000 0
0.000000 0.000000 0.000000 0
0.000000 0.000000 0.000000 0
0.000000 0.000000 0.000000 0
0.000000 0.000000 0.000000 0
0.000000 0.000000 0.000000 0
0.000000 0.000000 0.000000 0
0.000000 0.000000 0.000000 0
0.000000 0.000000 0.000000 0
0.000000 0.000000 0.000000 0
0.000000 0.000000 0.000000 0
0.000000 0.000000 0.000000 0
0.000000 0.000000 0.000000 0
0.000000 0.000000 0.000000 0
0.000000 0.000000 0.000000 0
0.000000 0.000000 0.000000 0
0.000000 0.000000 0.000000 0
0.000000 0.000000 0.000000 0
0.000000 0.000000 0.000000 0
0.000000 0.000000 0.000000 0
0.000000 0.000000 0.000000 0
0.000000 0.000000 0.000000 0
0.000000 0.000000 0.000000 0
0.000000 0.000000 0.000000 0
0.000000 0.000000 0.000000 0
0.000000 0.000000 0.000000 0
0.000000 0.000000 0.000000 0
0.000000 0.000000 0.000000 0
0.000000 0.000000 0.000000 0
0.000000 0.000000 0.000000 0
0.000000 0.000000 0.000000 0
0.000000 0.000000 0.000000 0
0.000000 0.000000 0.000000 0
0.000000 0.000000 0.000000 0
0.000000 0.000000 0.000000 0
0.000000 0.000000 0.000000 0
0.000000 0.000000 0.000000 0
0.000000 0.000000 0.000000 0
0.000000 0.000000 0.000000 0
0.000000 0.000000 0.000000 0
0.000000 0.000000 0.000000 0
0.000000 0.000000 0.000000 0
0.000000 0.000000 0.000000 0
0.000000 0.000000 0.000000 0
0.000000 0.000000 0.000000 0
0.000000 0.000000 0.000000 0
0.000000 0.000000 0.000000 0
0.000000 0.000000 0.000000 0
0.000000 0.000000 0.000000 0
0.000000 0.000000 0.000000 0
0.000000 0.000000 0.000000 0
0.000000 0.000000 0.000000 0
0.000000 0.000000 0.000000 0
0.000000 0.000000 0.000000 0
0.000000 0.000000 0.000000 0
0.000000 0.000000 0.000000 0
0.000000 0.000000 0.000000 0
0.000000 0.000000 0.000000 0
0.000000 0.000000 0.000000 0
0.000000 0.000000 0.000000 0
0.000000 0.000000 0.000000 0
0.000000 0.000000 0.000000 0
0.000000 0.000000 0.000000 0
0.000000 0.000000 0.000000 0
0.000000 0.000000 0.000000 0
0.000000 0.000000 0.000000 0
0.000000 0.000000 0.000000 0
0.000000 0.000000 0.000000 0
0.000000 0.000000 0.000000 0
0.000000 0.000000 0.000000 0
0.000000 0.000000 0.000000 0
0.000000 0.000000 0.000000 0
0.000000 0.000000 0.000000 0
0.000000 0.000000 0.000000 0
0.000000 0.000000 0.000000 0
0.000000 0.000000 0.000000 0
0.000000 0.000000 0.000000 0
0.000000 0.000000 0.000000 0
0.000000 0.000000 0.000000 0
0.000000 0.000000 0.000000 0
0.000000 0.000000 0.000000 0
0.000000 0.000000 0.000000 0
0.000000 0.000000 0.000000 0
0.000000 0.000000 0.000000 0
0.000000 0.000000 0.000000 0
0.000000 0.000000 0.000000 0
0.000000 0.000000 0.000000 0
0.000000 0.000000 0.000000 0
0.000000 0.000000 0.000000 0
0.000000 0.000000 0.000000 0
0.000000 0.000000 0.000000 0
0.000000 0.000000 0.000000 0
0.000000 0.000000 0.000000 0
0.000000 0.000000 0.000000 0
3.352309 2.226501 0.213585 4
0.000000 0.000000 0.000000 0
0.000000 0.000000 0.000000 0
12.373635 8.156089 0.061383 14
0.000000 0.000000 0.000000 0
8.200056 5.384566 0.040570 9
0.000000 0.000000 0.000000 0
3.740693 2.446993 0.018458 4
12.200872 7.981261 0.773416 14
11.921869 7.769071 0.058670 14
12.156225 7.921792 0.769616 14
12.463823 8.091289 0.061174 14
12.077902 7.840755 0.763699 14
12.049681 7.792573 0.058984 14
12.502452 8.085382 0.789556 14
12.004418 7.733622 0.058606 14
12.264707 7.901308 0.773578 14
12.581762 8.074528 0.061261 14
12.219652 7.842138 0.769780 14
0.000000 0.000000 0.000000 0
12.738139 8.143531 0.801450 15
0.000000 0.000000 0.000000 0
12.356459 7.869174 0.776478 14
0.000000 0.000000 0.000000 0
12.361746 7.842249 0.775856 14
0.000000 0.000000 0.000000 0
0.000000 0.000000 0.000000 0
0.000000 0.000000 0.000000 0
10.428439 6.564826 0.652919 12
0.000000 0.000000 0.000000 0
10.363743 6.498870 0.648079 12
10.601566 6.622253 0.050671 12
10.408951 6.501937 0.650118 12
10.621599 6.609023 0.050633 12
10.386373 6.462659 0.647926 12
10.667117 6.611548 0.050715 12
0.000000 0.000000 0.000000 0
10.661621 6.582413 0.050555 12
0.016994 0.010492 0.001058 0
10.664576 6.558558 0.050436 12
12.699737 7.810151 0.789394 14
10.658952 6.529487 0.050277 12
13.224271 8.100955 0.821020 15
10.687407 6.521291 0.050278 12
12.854795 7.843800 0.797135 15
10.690226 6.497435 0.050159 12
12.868471 7.821355 0.797040 15
10.710105 6.483946 0.050120 12
13.411742 8.119529 0.829710 15
10.712842 6.460080 0.050002 12
12.947013 7.807333 0.800021 15
10.741245 6.451670 0.050002 12
13.208879 7.933841 0.815247 15
10.752490 6.432914 0.049924 12
13.239847 7.921031 0.816207 15
10.755112 6.409018 0.049805 12
13.082089 7.795675 0.805545 15
10.740482 6.374926 0.049607 12
13.550808 8.042971 0.833442 15
10.768808 6.366349 0.049607 12
13.177999 7.790624 0.809578 15
10.762671 6.337396 0.049449 12
13.114135 7.722012 0.804729 15
10.756464 6.308484 0.049292 12
13.093143 7.678906 0.802522 15
10.698380 6.249350 0.048897 12
13.684250 7.993515 0.837796 15
13.769063 8.010859 0.062768 15
13.413346 7.803903 0.820277 15
13.307151 7.711063 0.060503 15
13.634315 7.900645 0.832846 15
13.441844 7.757806 0.060887 15
13.648092 7.876841 0.832677 15
13.455363 7.734334 0.060790 15
13.566589 7.798269 0.826774 15
13.260560 7.591599 0.059753 15
14.108832 8.077229 0.858856 16
13.273790 7.568442 0.059657 15
13.689162 7.805279 0.832379 15
13.573936 7.708219 0.060847 15
14.041430 7.973693 0.852849 16
13.735342 7.768204 0.061410 15
13.820640 7.816445 0.838509 15
13.661752 7.695143 0.060922 15
13.825566 7.787414 0.837881 15
14.224609 7.979508 0.063267 16
14.231060 7.983128 0.861507 16
13.723450 7.666917 0.060879 15
13.913699 7.773204 0.841371 15
14.217425 7.910360 0.062907 16
14.485735 8.059645 0.875006 16
13.907573 7.706207 0.061376 15
14.063044 7.792354 0.848549 16
13.929756 7.686754 0.061314 15
14.312694 7.898067 0.862676 16
14.337523 7.879156 0.062945 16
14.247698 7.829792 0.857831 16
13.974051 7.647685 0.061191 15
14.243827 7.795328 0.856675 16
14.628355 7.972625 0.063889 16
14.511698 7.909046 0.871849 16
14.132493 7.670413 0.061564 16
14.314842 7.769383 0.859104 16
14.471356 7.821663 0.062877 16
14.846702 8.024536 0.890075 16
14.326488 7.711085 0.062086 16
14.447406 7.776168 0.865218 16
14.304668 7.667172 0.061832 16
15.024259 8.052866 0.898814 17
14.741483 7.868211 0.063555 16
14.580187 7.782120 0.871329 16
14.357836 7.631274 0.061741 16
14.902383 7.920703 0.889649 16
15.007493 7.943008 0.064368 16
14.704361 7.782570 0.876910 16
14.517084 7.651045 0.062104 16
14.806270 7.803457 0.882069 16
15.052838 7.899868 0.064229 17
14.828714 7.782246 0.882489 16
14.676645 7.669798 0.062463 16
14.859982 7.765607 0.883436 16
14.760975 7.681099 0.062659 16
15.024110 7.818025 0.892274 16
14.800995 7.669126 0.062667 16
14.975672 7.759634 0.888485 16
14.645509 7.556166 0.061849 16
15.211062 7.847957 0.901528 17
14.667569 7.535163 0.061783 16
15.064855 7.739261 0.891954 16
14.689603 7.514106 0.061716 16
15.256156 7.803913 0.902364 17
14.702694 7.488456 0.061612 16
15.073992 7.677567 0.890689 16
14.751417 7.480877 0.061658 16
15.105186 7.660283 0.891634 16
14.800158 7.473148 0.061702 16
15.564248 7.858966 0.917810 17
14.857849 7.469764 0.061783 16
15.372740 7.728625 0.905612 17
14.888749 7.452774 0.061752 16
15.984511 8.001274 0.940714 17
14.946485 7.449080 0.061833 16
15.542636 7.746192 0.913802 17
15.004251 7.445206 0.061912 16
16.128649 8.003139 0.947319 18
15.062052 7.441154 0.061991 16
15.685984 7.749398 0.920413 17
15.128855 7.441337 0.062106 16
16.174417 7.955611 0.948142 18
15.168762 7.428114 0.062110 16
15.793666 7.734128 0.924919 17
15.199681 7.410393 0.062077 16
16.229029 7.912237 0.949490 18
15.221588 7.388220 0.062007 16
15.937368 7.735643 0.931524 17
15.279480 7.383397 0.062083 16
16.265553 7.859889 0.949788 18
15.310367 7.365387 0.062050 16
16.108267 7.749236 0.939700 17
15.404368 7.377530 0.062270 17
16.274887 7.794442 0.948510 18
15.480408 7.380759 0.062418 17
16.477768 7.856281 0.959419 18
15.547469 7.379456 0.062528 17
16.383200 7.776127 0.953007 18
15.623617 7.382215 0.062673 17
16.839174 7.956571 0.978603 18
15.672672 7.371961 0.062709 17
16.455435 7.740149 0.955401 18
15.730798 7.365799 0.062781 17
17.047735 7.982443 0.988860 18
15.779883 7.355231 0.062738 17
16.554779 7.716422 0.959287 18
15.828982 7.344514 0.062773 17
17.057394 7.914487 0.987491 18
15.932560 7.358808 0.063021 17
16.735744 7.729776 0.967971 18
16.036238 7.372760 0.063270 17
16.912537 7.775644 0.977292 18
16.130917 7.382213 0.063480 17
17.162178 7.854164 0.990805 18
16.225679 7.391357 0.063690 17
17.012287 7.749684 0.981251 18
16.329630 7.404323 0.063934 17
17.607872 7.983914 1.014676 19
16.424562 7.412835 0.064141 18
17.075657 7.706691 0.983111 18
16.519569 7.421037 0.064347 18
17.243946 7.746446 0.991901 18
16.669430 7.453422 0.064766 18
17.102463 7.647044 0.982875 18
16.801184 7.477173 0.065110 18
17.088421 7.605004 0.981185 18
16.951355 7.508587 0.065525 18
18.179087 8.052409 1.042875 19
17.266392 7.612112 0.066572 18
18.302773 8.069014 1.049034 20
17.471951 7.666342 0.067193 19
18.655186 8.185522 1.068285 20
17.448648 7.619829 0.066932 19
18.696905 8.164944 1.069726 20
16.948334 7.366147 0.064847 18
18.848515 8.192009 1.077451 20
16.851030 7.288915 0.064310 18
18.881121 8.167031 1.078369 20
16.808615 7.235770 0.063984 18
0.000000 0.000000 0.000000 0
16.793642 7.194609 0.063765 18
17.872255 7.656700 1.018971 19
16.824572 7.173132 0.063719 18
17.913158 7.637248 1.020418 19
16.837067 7.143757 0.063604 18
17.889692 7.590373 1.018202 19
16.950846 7.157147 0.063870 18
19.319696 8.157345 1.098647 21
17.027845 7.154666 0.063997 18
19.628523 8.247405 1.115254 21
17.114117 7.155797 0.064157 18
19.670536 8.224693 1.116689 21
17.191208 7.152808 0.064282 18
19.740187 8.213370 1.119693 21
17.259102 7.145744 0.064371 18
19.911352 8.243849 1.128447 21
17.336269 7.142275 0.064494 18
19.925716 8.209087 1.128312 21
17.422729 7.142352 0.064650 18
20.032421 8.212181 1.133403 21
17.472208 7.127040 0.064669 18
20.111458 8.203609 1.136926 21
17.484619 7.096535 0.064550 18
0.000000 0.000000 0.000000 0
17.496979 7.066008 0.064431 18
18.917694 7.639751 1.067670 20
17.500008 7.031732 0.064279 18
18.958803 7.617895 1.069109 20
17.484396 6.990040 0.064057 18
18.934986 7.569968 1.066890 20
17.487278 6.955817 0.063905 18
0.000000 0.000000 0.000000 0
17.462200 6.910568 0.063650 18
19.286306 7.632448 1.084915 20
17.474236 6.880080 0.063532 18
19.327478 7.609753 1.086351 20
17.448971 6.834982 0.063279 18
19.340738 7.576011 1.086220 20
17.470192 6.808148 0.063195 18
19.446985 7.578506 1.091311 20
17.454077 6.766803 0.062975 18
19.553301 7.580655 1.096400 21
17.428539 6.721936 0.062723 18
21.159781 8.161021 1.185536 22
17.440248 6.691507 0.062605 18
21.304529 8.174163 1.192700 22
17.414528 6.646795 0.062354 18
21.673307 8.272289 1.212389 23
17.416754 6.612841 0.062202 18
21.687719 8.234452 1.212242 23
17.418917 6.578900 0.062052 18
21.720749 8.203647 1.213140 23
17.392927 6.534421 0.061801 18
21.725695 8.162215 1.212471 23
17.404306 6.504055 0.061685 18
23.414373 8.750040 1.305702 25
17.396885 6.466701 0.061501 18
23.485781 8.730041 1.308674 25
17.408144 6.436327 0.061384 18
23.500988 8.689039 1.308516 25
17.381813 6.392128 0.061135 18
23.525501 8.651459 1.308880 25
17.392942 6.361783 0.061018 18
23.559328 8.617249 1.309764 25
17.413418 6.334836 0.060852 18
23.564962 8.572708 1.308973 25
17.396236 6.294227 0.060638 18
23.608065 8.541762 1.310379 25
17.378967 6.253697 0.060422 18
23.660534 8.514074 1.312305 25
17.361612 6.213248 0.060208 18
23.647156 8.462673 1.310584 25
17.391272 6.189642 0.060157 18
23.633675 8.411345 1.308862 25
17.392622 6.155943 0.060008 18
23.638912 8.366755 1.308183 25
17.393908 6.122259 0.059859 18
23.653488 8.325488 1.308025 25
17.357372 6.075372 0.059581 18
23.658562 8.280895 1.307346 25
17.386839 6.051643 0.059530 18
23.644695 8.229746 1.305625 25
17.387926 6.018018 0.059382 18
23.677904 8.195001 1.306510 25
17.360580 5.974645 0.059137 18
23.711065 8.160165 1.307392 25
17.361521 5.941098 0.058989 18
23.744175 8.125237 1.308276 25
17.371862 5.910787 0.058873 18
23.786690 8.093436 1.309679 25
17.410570 5.890072 0.058854 18
23.848085 8.067912 1.312123 25
17.373434 5.843737 0.058578 18
23.881071 8.032648 1.313005 25
17.374125 5.810234 0.058431 18
23.961357 8.013127 1.316489 25
17.384237 5.779902 0.058316 18
23.994267 7.977600 1.317371 25
17.384804 5.746413 0.058168 18
24.055571 7.951383 1.319812 25
17.375809 5.709819 0.057989 18
24.116858 7.924976 1.322254 25
17.376242 5.676378 0.057842 18
24.197109 7.904583 1.325734 25
17.367100 5.639866 0.057664 18
24.277363 7.883934 1.329214 25
17.395952 5.615690 0.057612 18
24.338612 7.856892 1.331653 25
17.367638 5.573098 0.057371 18
24.371313 7.820506 1.332532 25
17.339231 5.530622 0.057130 18
24.413477 7.787064 1.333929 25
17.367922 5.506396 0.057078 18
24.474636 7.759537 1.336367 25
17.348896 5.467059 0.056869 18
24.564348 7.740823 1.340363 25
17.367952 5.439759 0.056786 18
24.692188 7.733759 1.346437 25
17.348778 5.400522 0.056578 18
24.762869 7.708463 1.349391 25
17.348623 5.367279 0.056432 18
0.000000 0.000000 0.000000 0
17.357965 5.336991 0.056318 18
23.281452 7.158265 1.266987 24
17.348127 5.300844 0.056142 18
24.678759 7.540771 1.342148 25
17.338217 5.264747 0.055966 18
24.558109 7.457067 1.334715 25
17.337807 5.231589 0.055820 18
24.379881 7.356498 1.324168 25
17.346910 5.201321 0.055707 18
24.335295 7.296728 1.320892 25
17.308041 5.156760 0.055439 18
24.089592 7.177256 1.306714 25
17.355371 5.137899 0.055448 18
24.063786 7.123864 1.304480 25
17.345125 5.101957 0.055272 18
0.000000 0.000000 0.000000 0
17.354004 5.071676 0.055158 18
21.903015 6.401115 1.185839 22
17.343622 5.035803 0.054983 18
21.760712 6.318326 1.177392 22
17.342777 5.002754 0.054839 18
21.877260 6.310786 1.182957 22
17.341871 4.969723 0.054695 18
21.993853 6.302858 1.188520 22
17.312046 4.928496 0.054460 18
22.273764 6.341027 1.202900 23
0.000000 0.000000 0.000000 0
22.159878 6.266814 1.196011 23
0.000000 0.000000 0.000000 0
23.978296 6.735888 1.293361 24
0.000000 0.000000 0.000000 0
23.605257 6.586668 1.272463 24
0.000000 0.000000 0.000000 0
23.857323 6.612143 1.285270 24
0.000000 0.000000 0.000000 0
23.820690 6.557243 1.282523 24
7.002960 1.914598 0.021691 7
23.803207 6.507760 1.280811 24
0.000000 0.000000 0.000000 0
23.843449 6.474058 1.282211 24
7.019255 1.892745 0.021629 7
23.912573 6.448035 1.285164 24
6.983910 1.870145 0.021433 7
23.875570 6.393379 1.282308 24
7.016156 1.865662 0.021476 7
23.992867 6.379930 1.287851 24
6.961390 1.838096 0.021253 7
24.013626 6.340597 1.288212 24
6.983933 1.831016 0.021267 7
23.976364 6.286014 1.285466 24
6.967764 1.813786 0.021162 7
23.890659 6.219002 1.280131 24
6.970919 1.801622 0.021117 7
23.901487 6.177297 1.279976 24
6.974053 1.789453 0.021071 7
23.883221 6.128128 1.278266 24
6.986856 1.779746 0.021055 7
23.903564 6.088902 1.278629 24
6.970562 1.762646 0.020951 7
23.807663 6.020245 1.272779 24
6.973629 1.750478 0.020906 7
23.837515 5.983547 1.273660 24
7.005783 1.745557 0.020948 7
23.828547 5.937107 1.272470 24
6.969989 1.723724 0.020787 7
23.790409 5.883523 1.269729 24
6.972987 1.711556 0.020741 7
23.693964 5.815808 1.263883 24
6.985679 1.701751 0.020725 7
23.762302 5.788630 1.266833 24
6.969200 1.684856 0.020622 7
23.850033 5.765923 1.270816 24
7.030473 1.686687 0.020749 7
23.898912 5.733610 1.272731 24
7.023678 1.672098 0.020675 7
23.908892 5.691891 1.272576 24
7.046051 1.664435 0.020687 7
0.000000 0.000000 0.000000 0
7.029472 1.647571 0.020584 7
0.000000 0.000000 0.000000 0
7.003118 1.628505 0.020453 7
0.000000 0.000000 0.000000 0
6.986461 1.611784 0.020351 7
6.889573 1.589431 0.365927 7
6.979516 1.597357 0.020277 7
6.892338 1.577405 0.365882 7
6.982293 1.585173 0.020232 7
6.875605 1.560952 0.364804 7
6.975294 1.570787 0.020159 7
6.858836 1.544562 0.363726 7
6.987784 1.560790 0.020142 7
6.881017 1.536943 0.364715 7
6.990498 1.548592 0.020097 7
6.893441 1.527091 0.365187 7
6.983423 1.534243 0.020024 7
0.000000 0.000000 0.000000 0
7.005632 1.526310 0.020034 7
21.935438 4.779052 1.160877 22
6.978961 1.507746 0.019906 7
21.914469 4.734436 1.159187 22
7.010917 1.501847 0.019944 7
21.942236 4.700365 1.160078 22
6.984182 1.483375 0.019816 7
21.901569 4.651689 1.157356 22
7.006331 1.475304 0.019826 7
23.795729 5.010603 1.256833 24
7.008896 1.463074 0.019781 7
23.775116 4.962943 1.255130 24
6.991854 1.446786 0.019681 7
23.793531 4.923465 1.255494 24
7.004165 1.436590 0.019663 7
23.714048 4.863873 1.250696 24
7.006661 1.424363 0.019618 7
23.693148 4.816510 1.248997 24
6.950319 1.400282 0.019409 7
0.000000 0.000000 0.000000 0
7.021397 1.401855 0.019555 7
0.000000 0.000000 0.000000 0
6.984594 1.381835 0.019401 7
19.848328 3.926801 1.044833 20
7.016435 1.375413 0.019438 7
20.021761 3.924814 1.053472 20
6.999192 1.359352 0.019339 7
20.126623 3.908904 1.058499 20
7.040833 1.354692 0.019402 7
20.427626 3.930378 1.073835 20
7.043187 1.342401 0.019357 7
20.365791 3.881633 1.070095 20
7.055346 1.331962 0.019338 7
23.620764 4.459307 1.240562 24
6.988853 1.306780 0.019105 7
23.608885 4.414405 1.239379 24
6.981290 1.292760 0.019034 7
23.636200 4.376831 1.240259 24
7.022879 1.287787 0.019096 7
23.643810 4.335573 1.240108 24
7.054634 1.280888 0.019131 7
23.641525 4.292517 1.239441 24
6.978122 1.254419 0.018873 7
23.668646 4.254783 1.240320 24
6.990145 1.243990 0.018854 7
23.685877 4.215219 1.240683 24
7.012002 1.235258 0.018983 7
23.693186 4.173870 1.240937 24
6.994445 1.219582 0.018885 7
23.729956 4.137660 1.242331 24
6.976855 1.203972 0.018787 7
23.737150 4.096238 1.242179 24
6.978945 1.191793 0.018742 7
23.744268 4.054804 1.242027 24
6.990875 1.181277 0.018724 7
23.711929 4.006702 1.239815 24
6.983063 1.167425 0.018653 7
23.718893 3.965312 1.239664 24
6.945627 1.148709 0.018503 7
23.725786 3.923910 1.239512 24
6.977227 1.141428 0.018538 7
23.752319 3.885721 1.240390 24
6.989080 1.130846 0.018519 7
23.798506 3.850641 1.242296 24
6.991044 1.118646 0.018475 7
23.844645 3.815412 1.244203 24
6.973231 1.103317 0.018378 7
23.841410 3.772230 1.243536 24
6.985026 1.092690 0.018359 7
23.818365 3.725984 1.241841 24
6.986923 1.080497 0.018315 7
23.795231 3.679830 1.240146 24
17.229809 2.633733 0.045042 17
23.841112 3.644331 1.242051 24
17.214603 2.600670 0.044881 17
23.827694 3.599732 1.240870 24
17.229008 2.572097 0.044797 17
23.774685 3.549293 1.237634 24
17.213684 2.539104 0.044636 17
23.731453 3.500508 1.234912 24
17.208193 2.507615 0.044501 17
23.836357 3.473485 1.239901 24
17.222443 2.479002 0.044417 17
23.802853 3.426188 1.237694 24
17.246546 2.451755 0.044358 17
23.779140 3.380423 1.236000 24
17.221090 2.417479 0.044172 17
23.785011 3.338916 1.235849 24
17.245094 2.390165 0.044113 17
23.820488 3.301513 1.237238 24
17.239332 2.358707 0.043978 17
23.855907 3.263996 1.238629 24
17.243422 2.328616 0.043868 17
23.821987 3.217010 1.236421 24
17.227634 2.295875 0.043708 17
23.867168 3.180705 1.238325 24
17.281189 2.272322 0.043724 17
23.833086 3.133838 1.236118 24
17.245461 2.237011 0.043514 17
23.789007 3.085814 1.233400 24
17.259260 2.208178 0.043429 17
23.814177 3.046825 1.234275 24
17.243244 2.175548 0.043270 17
23.829374 3.006508 1.234638 24
17.286711 2.150388 0.043260 17
23.913876 2.974777 1.238592 24
17.260658 2.116562 0.043076 17
23.958689 2.937898 1.240494 24
17.294111 2.090033 0.043041 17
23.993534 2.899673 1.241881 24
17.287804 2.058664 0.042906 17
23.929148 2.849527 1.238137 24
17.301302 2.029652 0.042821 17
23.844824 2.797287 1.233368 24
17.294886 1.998305 0.042686 17
23.819916 2.752228 1.231677 24
17.308283 1.969248 0.042601 17
23.725462 2.699361 1.226397 23
17.321632 1.940149 0.042516 17
23.630896 2.646832 1.221118 23
17.295172 1.906627 0.042333 17
23.774462 2.620906 1.228148 23
17.288532 1.875360 0.042199 17
23.411648 2.539560 1.209025 23
17.331553 1.849427 0.042186 17
23.406122 2.497636 1.208364 23
17.304920 1.816044 0.042004 17
23.529642 2.469290 1.214367 23
17.318008 1.786865 0.041918 17
23.951155 2.471270 1.235745 24
17.331051 1.757645 0.041832 17
23.945503 2.428457 1.235080 24
17.353994 1.729378 0.041771 17
23.870213 2.378738 1.230830 24
17.337082 1.697138 0.041613 17
24.083063 2.357506 1.241437 24
17.340017 1.666877 0.041503 17
24.146795 2.321205 1.244359 24
17.332945 1.635671 0.041370 17
24.220415 2.285626 1.247792 24
17.355690 1.607261 0.041307 17
24.254208 2.246113 1.249175 24
17.358469 1.576967 0.041198 17
24.317776 2.209200 1.252094 24
17.361195 1.546668 0.041087 17
24.391235 2.172958 1.255524 24
17.353905 1.515495 0.040877 17
24.315411 2.123435 1.251166 24
17.356524 1.485205 0.040767 17
24.219582 2.072479 1.245894 24
17.329193 1.452404 0.040587 17
24.163460 2.025201 1.242669 24
17.371571 1.425428 0.040571 17
24.017662 1.970774 1.234841 24
17.354095 1.393506 0.040414 17
24.040983 1.930452 1.235712 24
17.346531 1.362432 0.040282 17
23.954718 1.881452 1.230956 24
17.358854 1.332920 0.040195 17
23.938057 1.838112 1.229781 24
17.341209 1.301125 0.040039 17
23.891441 1.792594 1.227072 23
17.383348 1.273780 0.040021 17
23.904501 1.751623 1.227432 24
17.355621 1.241298 0.039843 17
23.897570 1.709188 1.226770 23
17.337809 1.209613 0.039687 17
23.900522 1.667476 1.226619 23
17.379803 1.182065 0.039669 17
23.913372 1.626438 1.226979 24
17.381842 1.151730 0.039559 17
23.995899 1.589981 1.230917 24
17.343906 1.118816 0.039359 17
24.178038 1.559671 1.239966 24
17.365793 1.089797 0.039294 17
0.000000 0.000000 0.000000 0
17.347706 1.058268 0.039140 17
0.000000 0.000000 0.000000 0
17.349527 1.027989 0.039031 17
0.000000 0.000000 0.000000 0
17.351294 0.997707 0.038921 17
19.302835 1.109921 0.989032 19
17.353010 0.967422 0.038811 17
19.314722 1.076786 0.989421 19
17.344688 0.936594 0.038679 17
19.336523 1.044151 0.990320 19
17.386244 0.908408 0.038659 17
0.000000 0.000000 0.000000 0
17.357840 0.876549 0.038482 17
21.484526 1.084941 1.099858 21
17.369331 0.846739 0.038395 17
21.496368 1.047929 1.100233 21
17.360792 0.815953 0.038263 17
22.465837 1.055889 1.149614 22
17.372181 0.786104 0.038176 17
25.111494 1.136314 1.284735 25
17.373526 0.755783 0.038066 17
24.654480 1.072518 1.261099 24
17.334854 0.723790 0.037869 17
24.616411 1.027820 1.258903 24
17.386051 0.695533 0.037868 17
25.226894 1.009207 1.289871 25
17.357262 0.664041 0.037694 17
25.318441 0.968613 1.294304 25
17.388374 0.634840 0.037649 17
25.310123 0.924059 1.293634 25
17.359474 0.603448 0.037475 17
25.291740 0.879189 1.292455 25
17.390484 0.574139 0.037430 17
0.000000 0.000000 0.000000 0
17.401455 0.544099 0.037342 17
0.000000 0.000000 0.000000 0
17.372391 0.512842 0.037168 17
17.679264 0.521901 0.902956 17
17.403250 0.483353 0.037122 17
17.650206 0.490212 0.901315 17
17.414062 0.453238 0.037034 17
17.651039 0.459406 0.901204 17
17.414827 0.422844 0.036924 17
17.641836 0.428356 0.900582 17
17.405542 0.392224 0.036793 17
17.642563 0.397565 0.900472 17
17.406200 0.361845 0.036683 17
0.000000 0.000000 0.000000 0
17.416805 0.331655 0.036595 17
24.813229 0.472500 1.266055 24
17.407358 0.301084 0.036464 17
24.764097 0.428328 1.263351 24
17.397858 0.270546 0.036334 17
25.004475 0.388833 1.275420 25
17.428303 0.240595 0.036286 17
25.654219 0.354152 1.308365 25
17.418695 0.210056 0.036156 17
25.884489 0.312147 1.319916 25
17.459032 0.180067 0.036128 17
25.875017 0.266866 1.319243 25
17.429321 0.149338 0.035957 17
25.865463 0.221620 1.318572 25
17.469557 0.119191 0.035929 17
25.845846 0.176340 1.317391 25
17.509739 0.088903 0.035901 17
25.866096 0.131332 1.318245 25
17.489866 0.058276 0.035750 17
25.846321 0.086120 1.317065 25
17.519943 0.027798 0.035700 17
25.866415 0.041041 1.317919 25
17.549963 -0.002785 0.035573 17
25.866461 -0.004104 1.317642 25
17.579933 -0.033472 0.035524 17
25.886398 -0.049288 1.318496 25
17.589846 -0.064191 0.035432 17
25.876291 -0.094431 1.317824 25
17.579708 -0.094837 0.035302 17
25.896070 -0.139702 1.318679 25
17.579515 -0.125520 0.035191 17
25.875820 -0.184756 1.317498 25
17.579271 -0.156201 0.035080 17
25.895445 -0.230095 1.318352 25
17.568972 -0.186776 0.034949 17
25.904997 -0.275397 1.318697 25
17.588619 -0.217687 0.034878 17
25.894497 -0.320486 1.318026 25
17.588211 -0.248385 0.034767 17
25.913879 -0.365962 1.318878 25
17.567753 -0.278764 0.034617 17
25.933180 -0.411507 1.319732 25
17.587238 -0.309778 0.034545 17
25.952402 -0.457120 1.320584 25
17.586670 -0.340473 0.034435 17
25.921618 -0.501835 1.318897 25
17.636038 -0.372222 0.034421 17
25.940680 -0.547497 1.319749 25
17.575377 -0.401631 0.034194 17
25.969648 -0.593456 1.321110 26
17.594643 -0.432797 0.034121 17
25.948610 -0.638290 1.319929 25
17.613857 -0.464032 0.034049 17
25.967434 -0.684104 1.320782 26
17.623014 -0.495054 0.033958 17
25.966208 -0.729425 1.320619 26
17.602133 -0.525214 0.033808 17
25.954922 -0.774446 1.319947 26
17.611187 -0.556251 0.033716 17
25.963520 -0.820060 1.320291 26
17.610189 -0.586987 0.033605 17
25.952078 -0.865041 1.319620 26
17.619129 -0.618072 0.033513 17
25.990461 -0.911736 1.321486 26
17.608032 -0.648455 0.033383 17
25.978859 -0.956729 1.320814 26
17.626856 -0.679956 0.033310 17
26.007095 -1.003224 1.322173 26
17.595671 -0.709511 0.033142 17
26.005312 -1.048614 1.322008 26
17.634367 -0.741902 0.033106 17
26.013432 -1.094420 1.322352 26
17.653028 -0.773554 0.033032 17
26.041422 -1.141132 1.323709 26
17.641663 -0.803908 0.032902 17
26.039398 -1.186582 1.323545 26
17.620255 -0.833752 0.032753 17
26.017345 -1.231084 1.322366 26
17.678701 -0.867444 0.032754 17
26.045090 -1.277959 1.323723 26
17.657187 -0.897283 0.032605 17
26.062775 -1.324429 1.324572 26
17.685553 -0.929674 0.032549 17
26.080379 -1.370964 1.325422 26
17.653948 -0.958913 0.032383 17
26.087927 -1.417023 1.325765 26
17.682199 -0.991403 0.032325 17
26.105368 -1.463671 1.326613 26
17.670460 -1.021685 0.032196 17
26.142664 -1.511538 1.328475 26
17.688614 -1.053714 0.032120 17
26.130022 -1.556570 1.327803 26
17.696728 -1.085196 0.032027 17
26.137243 -1.602785 1.328145 26
17.714769 -1.117340 0.031951 17
26.124447 -1.647772 1.327473 26
17.682854 -1.146316 0.031786 17
26.141474 -1.694658 1.328321 26
17.720739 -1.179834 0.031745 17
26.148449 -1.740945 1.328662 26
17.708675 -1.210079 0.031616 17
26.155342 -1.787261 1.329004 26
17.706539 -1.240985 0.031503 17
26.152191 -1.832909 1.328838 26
17.724295 -1.273320 0.031427 17
26.208731 -1.882845 1.331710 26
17.732018 -1.304986 0.031332 17
26.185492 -1.927119 1.330532 26
17.729713 -1.335933 0.031221 17
26.241850 -1.977322 1.333403 26
17.737326 -1.367643 0.031126 17
26.198538 -2.020049 1.331213 26
17.754848 -1.400171 0.031049 17
26.204935 -2.066556 1.331553 26
17.752378 -1.431157 0.030937 17
26.211252 -2.113093 1.331894 26
17.749853 -1.462139 0.030824 17
26.227440 -2.160477 1.332739 26
17.767204 -1.494792 0.030747 17
26.213686 -2.205413 1.332068 26
17.794458 -1.528367 0.030686 17
26.259558 -2.255435 1.334430 26
17.781803 -1.558549 0.030477 17
26.255596 -2.301264 1.334147 26
17.789017 -1.590472 0.030382 17
26.261496 -2.347975 1.334487 26
17.786215 -1.621517 0.030269 17
26.297150 -2.397435 1.336342 26
17.823185 -1.656259 0.030224 17
26.282990 -2.442405 1.335671 26
17.780445 -1.683593 0.030043 17
26.288639 -2.489216 1.336009 26
17.817295 -1.718463 0.029998 17
26.314085 -2.537971 1.337359 26
17.824221 -1.750535 0.029902 17
26.299683 -2.582919 1.336686 26
17.821138 -1.781641 0.029789 17
26.295143 -2.628817 1.336520 26
17.808052 -1.811730 0.029659 17
26.310394 -2.676730 1.337363 26
17.824757 -1.844867 0.029580 17
26.345430 -2.726760 1.339217 26
17.821510 -1.875975 0.029466 17
26.340639 -2.772738 1.339050 26
17.818209 -1.907076 0.029354 17
26.345697 -2.819770 1.339388 26
17.844681 -1.941417 0.029289 17
26.350677 -2.866829 1.339725 26
17.890961 -1.978053 0.029258 18
26.385344 -2.917206 1.341578 26
17.857668 -2.005927 0.029096 17
26.360371 -2.961024 1.340400 26
17.903818 -2.042760 0.029063 18
26.384943 -3.010425 1.341747 26
17.880358 -2.071703 0.028918 18
26.389576 -3.057621 1.342085 26
17.886648 -2.104075 0.028820 18
26.404047 -3.106009 1.342926 26
17.873018 -2.134104 0.028691 18
26.378759 -3.149721 1.341750 26
17.869267 -2.165295 0.028577 18
26.422804 -3.201764 1.344104 26
17.855534 -2.195259 0.028448 17
26.427097 -3.249095 1.344441 26
17.871523 -2.228895 0.028366 18
26.421394 -3.295215 1.344272 26
17.887447 -2.262593 0.028284 18
26.405704 -3.340071 1.343601 26
17.873554 -2.292537 0.028154 18
26.459278 -3.393778 1.346457 26
17.869526 -2.323729 0.028041 18
26.453323 -3.439954 1.346290 26
17.875357 -2.356220 0.027943 18
26.486895 -3.491341 1.348137 26
17.871218 -2.387415 0.027829 18
26.480768 -3.537565 1.347969 26
17.886841 -2.421285 0.027746 18
26.494358 -3.586458 1.348808 26
17.892496 -2.453859 0.027648 18
26.497961 -3.634051 1.349144 26
17.878281 -2.483707 0.027519 18
26.511370 -3.683043 1.349982 26
17.883821 -2.516300 0.027420 18
26.524691 -3.732093 1.350821 26
17.879402 -2.547510 0.027307 18
26.547808 -3.782609 1.352163 26
17.874929 -2.578711 0.027193 18
26.551058 -3.830366 1.352497 26
17.890190 -2.612795 0.027109 18
26.573986 -3.881031 1.353839 26
17.875711 -2.642553 0.026980 18
26.596823 -3.931788 1.355180 26
17.880960 -2.675228 0.026881 18
26.580050 -3.976726 1.354507 26
17.886154 -2.707929 0.026782 18
26.592827 -4.026103 1.355344 26
17.891287 -2.740656 0.026683 18
26.625257 -4.078560 1.357188 26
17.866711 -2.768815 0.026539 18
26.618107 -4.125024 1.357017 26
17.891489 -2.804640 0.026469 18
26.620741 -4.173023 1.357351 26
17.896444 -2.837429 0.026369 18
26.692339 -4.231992 1.361205 27
17.891466 -2.868659 0.026255 18
26.675058 -4.276992 1.360532 27
17.876562 -2.898282 0.026126 18
26.697140 -4.328340 1.361870 27
17.891209 -2.932712 0.026041 18
26.689552 -4.374929 1.361700 27
17.886063 -2.963934 0.025926 18
26.711441 -4.426404 1.363037 27
17.861141 -2.991843 0.025784 18
26.723385 -4.476319 1.363873 27
17.895329 -3.029688 0.025727 18
26.754929 -4.529623 1.365713 27
17.890013 -3.060917 0.025612 18
26.737146 -4.574629 1.365039 27
17.914206 -3.097247 0.025540 18
26.768496 -4.628095 1.366879 27
17.889072 -3.125067 0.025397 18
26.780062 -4.678247 1.367712 27
17.903288 -3.159761 0.025230 18
26.781708 -4.726718 1.367922 27
17.907591 -3.192758 0.025130 18
26.793091 -4.776961 1.368756 27
0.000000 0.000000 0.000000 0
26.804379 -4.827259 1.369588 27
0.000000 0.000000 0.000000 0
26.835226 -4.881184 1.371426 27
0.000000 0.000000 0.000000 0
26.846319 -4.931624 1.372257 27
0.000000 0.000000 0.000000 0
26.876961 -4.985760 1.374094 27
0.000000 0.000000 0.000000 0
26.858410 -5.030825 1.373419 27
7.172853 -1.356503 0.009809 7
26.898664 -5.086975 1.375757 27
0.000000 0.000000 0.000000 0
26.919182 -5.139534 1.377090 27
7.187712 -1.385318 0.009743 7
26.919989 -5.188401 1.377419 27
7.136203 -1.388312 0.009631 7
26.940310 -5.241101 1.378751 27
7.074893 -1.389204 0.009506 7
26.970331 -5.295812 1.380585 27
7.082268 -1.403494 0.009474 7
26.980650 -5.346760 1.381415 27
7.089613 -1.417814 0.009441 7
26.981077 -5.395802 1.381743 27
7.057721 -1.424251 0.009357 7
27.020578 -5.452765 1.384076 27
7.016028 -1.428586 0.009260 7
27.011030 -5.499918 1.383903 27
7.052706 -1.448879 0.009266 7
27.011183 -5.549064 1.384232 27
7.050167 -1.461186 0.009221 7
27.069921 -5.610390 1.387566 27
7.067182 -1.477581 0.009201 7
27.079647 -5.661716 1.388395 27
7.035239 -1.483723 0.009117 7
27.079506 -5.711033 1.388721 27
7.032639 -1.495999 0.009072 7
27.089043 -5.762445 1.389549 27
7.020240 -1.506173 0.009014 7
27.078953 -5.809717 1.389374 27
7.017600 -1.518424 0.008969 7
27.107826 -5.865421 1.391204 27
7.034480 -1.534933 0.008948 7
27.126831 -5.919113 1.392531 27
7.031790 -1.547209 0.008903 7
27.155483 -5.975036 1.394360 27
7.009553 -1.555147 0.008833 7
27.145021 -6.022424 1.394184 27
7.026346 -1.571745 0.008812 7
27.202707 -6.085056 1.397515 27
7.043102 -1.588405 0.008791 7
27.153080 -6.123737 1.395336 27
7.030569 -1.598479 0.008734 7
27.239750 -6.193262 1.400167 27
7.076504 -1.621917 0.008748 7
27.238642 -6.243030 1.400491 27
7.102892 -1.641019 0.008739 7
27.247175 -6.295058 1.401316 28
7.100018 -1.653413 0.008693 7
0.000000 0.000000 0.000000 0
7.087386 -1.663517 0.008635 7
0.000000 0.000000 0.000000 0
7.026083 -1.662072 0.008518 7
0.000000 0.000000 0.000000 0
7.042625 -1.678971 0.008496 7
7.101821 -1.693083 0.365659 7
7.068855 -1.698268 0.008486 7
7.069724 -1.698477 0.364113 7
7.056161 -1.708250 0.008428 7
7.018216 -1.699064 0.361567 7
7.053169 -1.720563 0.008382 7
7.044351 -1.718411 0.363021 7
7.079288 -1.740031 0.008371 7
7.021945 -1.725936 0.361976 7
7.085948 -1.754787 0.008337 7
7.028619 -1.740590 0.362430 7
7.053766 -1.759890 0.008256 7
7.025573 -1.752856 0.362384 7
7.079779 -1.779511 0.008244 7
7.003133 -1.760246 0.361339 7
7.047580 -1.784501 0.008165 7
7.009734 -1.774919 0.361793 7
7.073525 -1.804214 0.008152 7
27.455530 -7.002965 1.417512 28
7.041308 -1.809091 0.008073 7
27.375559 -7.033478 1.413835 28
7.057503 -1.826388 0.008049 7
27.382589 -7.086252 1.414657 28
7.054304 -1.838704 0.008004 7
27.418512 -7.146632 1.416976 28
7.051085 -1.851013 0.007957 7
27.444647 -7.204620 1.418795 28
7.086514 -1.873540 0.007955 7
27.489971 -7.267829 1.421613 28
7.092897 -1.888479 0.007919 7
27.477255 -7.315799 1.421433 28
7.070272 -1.895676 0.007819 7
27.522339 -7.379268 1.424123 28
7.086262 -1.913226 0.007795 7
27.528713 -7.432501 1.424942 28
7.111861 -1.933461 0.007780 7
27.534981 -7.485779 1.425759 28
7.098831 -1.943230 0.007723 7
27.560417 -7.544375 1.427576 28
7.143631 -1.968903 0.007729 7
27.595356 -7.605737 1.429890 28
7.169091 -1.989390 0.007713 7
27.572428 -7.651221 1.429211 28
7.107821 -1.985755 0.007604 7
27.587898 -7.707397 1.430526 28
7.075465 -1.990034 0.007527 7
27.622484 -7.769057 1.432840 28
7.071980 -2.002380 0.007481 7
27.656940 -7.830864 1.435152 28
7.078093 -2.017461 0.007445 7
27.643242 -7.879125 1.434971 28
7.093785 -2.035328 0.007418 7
27.677456 -7.941134 1.437282 28
7.090222 -2.047706 0.007372 7
27.682751 -7.994972 1.438098 28
7.086637 -2.060077 0.007325 7
27.678358 -8.046066 1.438414 28
7.083031 -2.072443 0.007279 7
27.721796 -8.111193 1.441223 28
7.098588 -2.090452 0.007252 7
27.755507 -8.173673 1.443532 28
7.075754 -2.097155 0.007186 7
27.750782 -8.224944 1.443848 28
7.081665 -2.112359 0.007149 7
27.765106 -8.281934 1.445161 29
7.097123 -2.130466 0.007121 7
27.827147 -8.353355 1.448962 29
7.064676 -2.134174 0.007046 7
27.841217 -8.410577 1.450274 29
7.080076 -2.152318 0.007019 7
27.845615 -8.464968 1.451086 29
7.085871 -2.167597 0.006981 7
27.859459 -8.522323 1.452397 29
7.110750 -2.188787 0.006963 7
27.892279 -8.585629 1.454702 29
7.106919 -2.201194 0.006916 7
27.896341 -8.640208 1.455514 29
7.112614 -2.216570 0.006878 7
27.957510 -8.712659 1.459311 29
18.225077 -5.714568 0.017514 19
27.951799 -8.764432 1.459625 29
18.243685 -5.755393 0.017420 19
27.965044 -8.822221 1.460932 29
18.233612 -5.787225 0.017300 19
28.016249 -8.892168 1.464231 29
18.261589 -5.831208 0.017215 19
28.010210 -8.944094 1.464542 29
18.222820 -5.853896 0.017068 19
28.042112 -9.008244 1.466845 29
18.288700 -5.910292 0.017018 19
28.073875 -9.072532 1.469145 29
18.259338 -5.936020 0.016879 19
28.067501 -9.124605 1.469457 29
18.258453 -5.970988 0.016767 19
28.127489 -9.198417 1.473249 29
18.295502 -6.018470 0.016689 19
28.158838 -9.263104 1.475548 29
18.303959 -6.056675 0.016585 19
28.142637 -9.312239 1.475361 29
18.302847 -6.091770 0.016472 19
28.173731 -9.377115 1.477659 29
18.292187 -6.123706 0.016351 19
28.204687 -9.442130 1.479957 29
18.309902 -6.165195 0.016254 19
28.188173 -9.491345 1.479769 29
18.308586 -6.200350 0.016141 19
28.237791 -9.562957 1.483060 29
18.316668 -6.238744 0.016035 19
28.211613 -9.609010 1.482375 29
18.315214 -6.273943 0.015922 19
28.270399 -9.684130 1.486161 29
18.351507 -6.322186 0.015840 19
28.272348 -9.739964 1.486966 29
18.359343 -6.360753 0.015734 19
28.293060 -9.802377 1.488764 29
18.348213 -6.392787 0.015611 19
28.304213 -9.861604 1.490064 30
18.346466 -6.428108 0.015497 19
28.362377 -9.937413 1.493847 30
18.344650 -6.463441 0.015382 19
28.382675 -10.000178 1.495643 30
18.380472 -6.512147 0.015299 19
28.402847 -10.063046 1.497439 30
18.369078 -6.544217 0.015177 19
28.394659 -10.115956 1.497746 30
18.385870 -6.586385 0.015077 19
28.414577 -10.178976 1.499540 30
18.374346 -6.618464 0.014954 19
28.415571 -10.235326 1.500343 30
18.381571 -6.657333 0.014846 19
28.435236 -10.298513 1.502136 30
18.360529 -6.685983 0.014628 19
28.454773 -10.361800 1.503796 30
18.395784 -6.735209 0.014543 19
28.455412 -10.418319 1.504597 30
18.383999 -6.767305 0.014419 19
28.512177 -10.495573 1.508372 30
18.390919 -6.806324 0.014310 19
28.531290 -10.559189 1.510164 30
18.416500 -6.852360 0.014215 19
28.568993 -10.629869 1.512946 30
18.367050 -6.870479 0.014063 19
28.569113 -10.686718 1.513746 30
18.392469 -6.916604 0.013967 19
28.578474 -10.747115 1.515040 30
18.408432 -6.959303 0.013865 19
28.597052 -10.811108 1.516830 30
18.424299 -7.002078 0.013761 19
28.643501 -10.885843 1.520105 30
18.393370 -7.027087 0.013624 19
28.633795 -10.939387 1.520408 30
18.409081 -7.069933 0.013520 19
28.642641 -11.000092 1.521700 30
18.424702 -7.112856 0.013416 19
28.679314 -11.071651 1.524479 30
18.412258 -7.145003 0.013291 19
28.678574 -11.128919 1.525275 30
18.418392 -7.184396 0.013180 19
28.724251 -11.204367 1.528548 30
18.443066 -7.231132 0.013082 19
28.723257 -11.261776 1.529343 30
18.467630 -7.277976 0.012984 19
28.750029 -11.330205 1.531625 30
18.436306 -7.302832 0.012846 19
28.795219 -11.406117 1.534895 31
18.479277 -7.357193 0.012759 19
28.793837 -11.463750 1.535689 31
18.457123 -7.385718 0.012628 19
28.829432 -11.536253 1.538463 31
18.462761 -7.425383 0.012514 19
28.837063 -11.597736 1.539751 31
18.440500 -7.453848 0.012383 19
28.853825 -11.663025 1.541535 31
